-0.705443 -5.36809 2.134 -0.440908 0.00572538 0.897534
-1.11839 -7.16683 1.94121 -0.441124 0.00551184 0.897429
-1.12321 -6.32217 1.33909 0.00161851 -0.999998 0.00136377
-2.02557 -6.09682 1.23233 -0.999918 -0.0112758 0.0061251
2.25323 -5.44984 2.21863 0.00134764 6.11558e-05 0.999999
1.00076 -6.31233 1.14361 -0.0613261 -0.996224 0.0614616
-0.594283 -7.64704 0.972083 -0.0489486 -0.982153 -0.181601
0.180738 -6.36518 0.780645 0.986456 -0.16332 0.0151978
-1.61013 -5.98607 1.69145 -0.444609 0.00726155 0.895695
3.85955 -5.4307 0.238278 0.952422 -0.0131317 -0.3045
0.150925 -6.3701 2.00732 0.796535 -0.417611 0.437188
1.77541 -6.7545 1.80296 -0.0128638 -0.999811 -0.0146087
3.75817 -6.02663 2.21304 0.00324873 0.00546728 0.99998
2.43516 -6.06495 0.00702625 0.0563106 0.0747846 -0.995609
3.17715 -5.25765 2.21424 0.00522478 0.00455757 0.999976
1.03742 -6.75554 0.812636 0.995934 -0.0649856 -0.0623811
-1.50628 -6.32916 0.518302 0.0240911 -0.999424 -0.0238899
0.231993 -6.32204 1.2249 0.516722 -0.854411 0.0545819
4.04916 -5.13172 2.12274 0.719733 0.00488623 0.694234
-0.101998 -5.65294 0.455956 -0.500705 0.742463 -0.445021
3.34958 -5.07572 -0.00687347 -0.000777347 -0.000557876 -1
0.110359 -7.15831 0.0126678 0.176851 -0.0128139 -0.984154
1.32309 -5.32476 2.22578 0.00659714 0.00645006 0.999957
1.26575 -6.7316 1.8404 -0.23153 -0.972212 0.034619
2.04316 -6.75657 1.71942 -0.00768366 -0.99997 -0.00112383
0.991293 -7.58407 1.88136 0.865135 -0.436382 0.247207
-1.01821 -7.66675 0.89459 -0.277449 -0.958122 -0.0708829
2.11764 -6.75486 2.02971 -0.00970287 -0.996987 0.0769623
1.08366 -5.61155 2.22756 0.00471007 -0.000400324 0.999989
3.86215 -5.02887 0.240608 0.948659 -0.0103998 -0.316129
0.190536 -6.36931 0.329714 0.850872 -0.525369 0.00229635
4.03667 -6.66849 1.77643 0.956443 -0.291822 -0.0075478
-0.113071 -7.65625 0.0731582 0.035672 -0.930998 -0.363276
2.0188 -6.75645 1.81437 -0.00673436 -0.999977 -0.000314015
-0.88028 -6.29241 0.100053 0.0192615 -0.926648 -0.375436
1.26831 -6.73254 1.88581 -0.259673 -0.965627 -0.0115486
-1.8381 -6.59379 0.155695 -0.71329 0.693504 -0.101344
-0.935366 -6.31725 0.373279 0.0345361 -0.999155 0.0222776
0.711101 -7.5793 2.09699 0.429532 -0.322577 0.843473
-1.37992 -7.54305 1.80558 -0.443917 -0.161419 0.881409
-1.13058 -7.60182 0.810112 -0.443347 -0.871665 -0.208908
3.67713 -6.74232 0.58813 -0.0408196 -0.996573 -0.071938
-1.35586 -7.5493 1.8169 -0.440762 -0.162658 0.882763
2.0797 -5.47232 0.00376409 0.00648526 -0.00561259 -0.999963
-0.98941 -5.11415 0.637458 -0.744718 -0.123516 -0.65585
0.187717 -6.37411 0.31422 0.859295 -0.51147 -0.00309572
0.179772 -6.52643 0.0693233 0.663845 0.309738 -0.680715
1.034 -6.84488 0.694488 0.997593 -0.0684277 -0.0112587
0.741704 -7.03048 2.09817 0.44408 0 0.895987
-0.926246 -6.89415 0.00438867 -0.00440642 -0.00528678 -0.999976
0.53311 -5.73078 0.00789637 -7.65926e-05 -0.00510252 -0.999987
-0.13162 -7.67954 1.97553 0.034404 -0.999115 0.0242037
0.372086 -7.60843 2.20809 0.0603821 -0.568587 0.820404
2.71109 -6.75873 0.713566 0.0482552 -0.998835 -0
0.19091 -6.36676 0.372923 0.881432 -0.469586 0.0506633
-1.30708 -7.37652 0.00782678 -0.00408987 -0.0049689 -0.999979
-0.208691 -7.68213 1.97991 0.0277338 -0.99829 0.0514653
-0.325878 -6.37067 2.07828 -0.00428235 -0.275246 0.961364
-0.660458 -6.36223 0.301771 -0.865793 -0.498239 0.0464784
-0.0661395 -7.6768 1.7054 0.0124641 -0.999921 -0.00176426
0.158166 -5.63019 0.0105883 -0.0572811 -0.00299644 -0.998354
2.80856 -5.85239 2.21404 0.00871939 -0.000535611 0.999962
4.09996 -6.42384 1.90278 0.92306 -0.375328 0.0841972
2.48043 -4.78676 -0.00313195 -0.00677748 0.000184615 -0.999977
-0.595471 -7.65251 1.01875 -0.0177076 -0.998427 -0.0531935
1.80942 -5.65913 0.0038521 -0.00503777 -0.00349556 -0.999981
0.705517 -7.67132 1.31277 0.000143531 -0.999983 -0.00582488
3.91669 -6.08803 2.20705 0.185616 0.00210542 0.98262
0.200496 -6.21107 0.025523 0.0645421 -0.272874 -0.959882
1.14726 -6.69387 1.53992 0.981414 0.189155 -0.0323623
0.836838 -6.51287 0.716794 0.151908 0.988386 0.00419006
2.14491 -6.75217 0.507759 -0.126621 -0.991901 0.00997229
0.701396 -6.75377 0.109787 0.0660675 -0.0773893 -0.99481
0.301196 -5.68512 2.23125 0.00115212 0.00622903 0.99998
2.20273 -6.75942 0.281866 -0.0864109 -0.99623 0.00761181
4.15438 -5.74913 1.44055 0.708756 -0.705363 0.0113667
-0.624285 -6.43227 2.01461 -0.691479 0.364583 0.623648
0.163154 -5.67364 2.23107 -0.0025745 0.00701596 0.999972
3.07141 -6.76366 1.53244 -0.0112147 -0.999937 -0.000629641
-1.07914 -7.62903 1.23505 -0.482776 -0.865404 0.134175
2.92301 -6.03402 0.555223 0.592112 -0.187977 -0.783625
2.15582 -6.752 0.873514 -0.112504 -0.993647 0.00302788
1.7286 -6.04676 2.22268 0.003209 -0.00193578 0.999993
1.74895 -5.01631 0.00134154 -0.00345106 -0.00581132 -0.999977
2.54885 -5.87296 0.356934 0.544357 -0.444307 -0.711524
4.02051 -6.70265 0.891901 0.84613 -0.532845 0.0118223
-0.409867 -6.38014 2.07557 -0.0401969 -0.146798 0.988349
2.19698 -5.69521 0.00381508 0.00978396 0.00527197 -0.999938
0.262699 -6.31653 1.22085 0.226371 -0.973601 0.0292793
-1.66153 -5.78121 0.0297331 -0.0874986 0.157597 -0.983619
-1.36548 -6.96868 0.442745 -0.396285 -0.028182 -0.917695
4.05826 -6.54205 1.25069 0.960801 -0.277193 0.00496234
0.12109 -7.18917 0.014685 0.216384 0.00660847 -0.976286
3.96798 -6.19981 0.304365 0.195494 -0.052382 -0.979305
0.919444 -6.60277 1.98074 0.524855 0.333607 0.783093
-0.194535 -6.54687 2.17518 -0.0049089 0.705539 0.708655
1.19911 -6.16743 2.22482 -0.0217945 -0.053471 0.998332
-1.41991 -5.30562 1.7799 -0.446641 0.00864502 0.894672
-0.0752851 -7.67735 1.78668 0.0239385 -0.99968 -0.00815658
4.02013 -6.70621 1.35863 0.896353 -0.44298 -0.0178905
-1.25105 -5.39418 1.86489 -0.444488 0.0103786 0.895725
0.926943 -5.94813 0.00771762 -0.00180863 0.00229554 -0.999996
0.0740329 -7.67561 1.43629 0.00914395 -0.999958 -0.00086405
1.62769 -6.06406 2.22311 0.0089117 -0.00126518 0.999959
-1.53546 -6.32711 1.18502 0.0940422 -0.995279 -0.0239974
0.123646 -6.36031 2.04813 0.549538 -0.409131 0.728437
0.179597 -6.38255 0.891922 0.996018 -0.0793806 -0.0405774
1.03163 -6.91686 0.435376 0.999892 0.00177905 0.0145748
1.13747 -6.37791 0.996616 0.908993 0.411408 -0.0669033
0.18092 -6.3759 0.908534 0.995888 -0.0779251 -0.0461949
0.660806 -7.67451 0.473425 0.00661952 -0.999934 0.00935281
1.7424 -6.33505 2.22419 0.0031185 0.00942267 0.999951
-1.06664 -7.63677 1.44913 -0.478692 -0.869505 -0.121719
2.96592 -6.76181 1.37975 -0.00592482 -0.999943 -0.00883935
0.691984 -6.63276 2.11293 0.431003 0.224681 0.873931
-1.81261 -6.5696 1.21239 -0.821591 0.570065 -0.00367473
0.231239 -6.3044 0.133611 0.391338 -0.878544 -0.273888
2.10201 -6.75612 1.55803 -0.0238788 -0.999524 -0.0195403
1.43821 -6.74909 1.94767 -0.0221809 -0.999704 -0.00999976
-1.15768 -6.3222 1.47063 0.0181414 -0.999835 0.000824723
-0.592664 -7.65338 1.04168 -0.0193912 -0.999594 -0.0208788
0.265739 -6.22656 0.0294228 -0.00765197 -0.368792 -0.92948
0.088581 -6.75551 0.000462333 0.230856 0.0202238 -0.972778
2.93126 -6.3864 0.643925 0.6074 -0.421085 -0.673612
-1.02258 -5.35661 0.654267 -0.679677 0.430951 -0.593566
0.682285 -7.22044 2.1279 0.441824 0.00414167 0.897092
1.19254 -6.45693 2.16515 0.838709 0.0419408 -0.542962
0.895424 -7.6638 1.59893 0.244828 -0.969527 0.00881755
2.91586 -5.39969 2.21543 0.0059901 -0.00404142 0.999974
-2.00129 -5.44991 0.867943 -0.973927 -0.0866315 -0.209667
4.0313 -6.68222 0.732277 0.871378 -0.487997 -0.0505928
1.01435 -6.77521 1.37811 0.94341 -0.0977982 -0.316879
-1.726 -6.54348 1.57382 -0.430527 0.689921 0.581942
0.711302 -7.30683 2.11393 0.444782 0.00389848 0.89563
-0.635908 -5.35872 2.16772 -0.424468 0.00435066 0.905432
-1.84008 -7.41554 1.3827 -0.999619 -0.0185512 0.0204465
-1.81987 -6.85238 0.472724 -0.736904 -0.190491 -0.648603
2.84538 -6.74338 0.692582 0.172458 -0.985016 -0.00135103
-0.807322 -5.22123 2.083 -0.443556 0.00268226 0.896243
0.91909 -5.19501 0.0041956 -0.00121768 -0.00504323 -0.999987
-1.26611 -7.39406 1.86825 -0.446598 0.00138263 0.894734
0.708425 -6.99151 0.115072 0.198957 0.0214528 -0.979773
2.13028 -5.96486 2.21978 0.00913017 0.00258365 0.999955
-1.92024 -6.26809 1.50058 -0.504469 -0.544077 0.670441
3.7141 -5.20925 2.21081 0.00150794 0.0058217 0.999982
3.2656 -5.21456 2.21346 0.00690489 0.00580999 0.999959
0.229401 -6.32113 1.26648 0.541519 -0.838569 0.0596543
-1.14092 -5.67529 1.92198 -0.442554 0.00698944 0.896715
0.427279 -6.51313 1.40007 0.0052663 0.999893 0.0136634
-0.789087 -5.14232 2.09179 -0.444085 0.0032947 0.895979
-0.666948 -6.40858 0.986485 -0.997552 -0.0363704 -0.0597341
-0.430549 -6.66219 2.23005 -0.0808999 0.217033 0.972806
-0.405326 -5.26957 2.23044 -0.0698568 0.000507153 0.997557
3.12139 -6.73711 0.704053 -0.0217375 -0.999764 0.000281701
0.0723008 -4.99263 2.22823 0.00608619 0.00229314 0.999979
2.59056 -6.06627 0.392621 0.264709 0.274037 -0.924572
0.955446 -6.29923 0.0975634 -0.0276125 -0.91783 -0.396011
0.479642 -6.32045 0.187202 -0.0591734 -0.989839 -0.129296
2.05577 -5.5248 2.21937 0.00625885 0.00362509 0.999974
-1.8153 -7.00498 0.495294 -0.834729 -0 -0.550661
1.1079 -6.72594 0.429941 0.468738 -0.731715 0.494851
3.86403 -5.20221 0.24892 0.926182 0.000938048 -0.377075
2.07594 -6.75669 1.93542 -0.00618505 -0.999979 0.00216326
-1.78153 -7.02715 1.59919 -0.65099 -0.0051236 0.759069
2.52376 -5.87294 0.0463437 0.414661 -0.152962 -0.897028
-0.00404512 -7.63478 0.0449373 0.0620542 -0.728971 -0.681726
3.15401 -6.76108 1.21366 -0.00472692 -0.999932 -0.0106957
3.30431 -6.76058 1.04102 -0.0100614 -0.999919 -0.00785276
2.49669 -5.88587 0.311812 0.690636 -0.586462 -0.423184
1.55149 -5.4032 2.22447 0.00858524 0.00196506 0.999961
2.60581 -5.80626 0.353751 0.455914 -0.440804 -0.773198
-1.26123 -7.20298 0.0062638 0.00144566 -0.00320741 -0.999994
1.03106 -6.9265 0.733018 0.99811 0.00492994 -0.061249
-0.516037 -7.31219 0.425088 0.0124867 -0.999647 0.0234472
3.84729 -4.96395 0.163249 0.990198 0.00823547 -0.139427
1.60041 -5.16225 2.22182 0.0100406 0.0128342 0.999867
-1.46652 -5.3571 0.718248 -0.470745 0.833546 -0.289136
2.91388 -5.65475 -0.00544313 -0.0290628 -0.0713739 -0.997026
-1.68138 -6.66878 1.66377 -0.457768 0.131263 0.879328
0.789908 -5.0592 0.00407516 -0.000643223 0.0020595 -0.999998
0.746049 -7.67162 1.32999 -0.00249636 -0.999982 -0.0055246
0.375154 -7.67473 0.413174 -0.00129253 -0.99997 0.00761849
2.86314 -6.10547 0.504693 0.809468 -0.143381 -0.569388
-0.0368248 -6.33545 2.09546 -0.0158844 -0.591651 0.806038
3.26956 -6.76201 1.25946 -0.0011704 -0.999884 -0.0152013
-1.91514 -6.32359 0.643866 -0.42062 -0.900985 -0.10632
-0.620208 -5.49285 2.17582 -0.408388 0.00563182 0.912791
1.94175 -6.75576 1.74923 -0.00993754 -0.999938 -0.00504059
-1.18768 -5.66147 1.89881 -0.442284 0.00715649 0.896847
1.58633 -6.75121 1.81445 -0.0303521 -0.999079 -0.0303189
2.42403 -5.32773 0.00369108 -0.00572014 -0.00522468 -0.99997
-0.126398 -5.9824 0.0118038 0.00435025 -0.00270031 -0.999987
-0.0178546 -5.03524 0.436346 -0.886545 0.0483413 -0.460109
-1.87933 -5.29493 1.54946 -0.488186 0.00899123 0.872693
-1.60539 -5.78785 0.0217076 -0.160044 0.110801 -0.980872
-1.08839 -5.85031 0.00459486 0.00423162 -0.00597131 -0.999973
-1.10703 -5.92239 0.0048918 0.00449961 -0.0052159 -0.999976
-1.58805 -6.6006 1.69154 -0.411942 0.408641 0.814443
-0.556654 -5.12018 0.543519 0.0515554 -0.0419433 -0.997789
1.20868 -5.51463 0.00712412 -0.000220756 -0.00533963 -0.999986
0.915447 -7.56302 1.99289 0.55283 -0.252698 0.794055
3.56195 -6.00962 2.21337 0.00193629 0.00367334 0.999991
0.768277 -5.13628 0.00409723 -0.000732734 -0.00211679 -0.999997
-1.54375 -6.51998 1.61126 -0.177077 0.945481 0.273329
-1.28128 -7.41649 0.00802134 -0.000971838 0.00117797 -0.999999
0.5829 -7.66988 0.700386 0.0149655 -0.999857 0.00788637
1.73672 -6.69847 2.19248 0.00749306 -0.572809 0.819654
2.4493 -6.76083 0.622475 0.000498226 -0.999999 0.00163922
-0.0633071 -5.65363 0.400741 -0.604737 0.717172 -0.346348
4.09454 -6.42959 1.94388 0.94891 -0.301468 0.0932042
-0.706403 -5.71925 2.13634 -0.436921 0.00548641 0.899483
-2.00732 -5.24133 1.22783 -0.993695 -0.00281191 -0.11208
0.608807 -7.67148 1.11008 0.00722743 -0.999915 -0.0108552
2.26439 -5.24513 0.00243008 0.014236 -0.0169449 -0.999755
-0.644856 -6.49544 2.0513 -0.438079 0.677234 0.591136
1.1383 -6.38827 0.933347 0.935541 0.345666 -0.0726448
0.183349 -6.35566 1.68291 0.962671 -0.270264 -0.0148898
-0.587619 -7.60322 0.872718 -0.100243 -0.782758 -0.6142
0.943132 -6.3218 0.274298 0.00669102 -0.999961 0.00572026
-1.38664 -7.59363 0.876842 -0.00589382 -0.793369 -0.608712
-1.75306 -6.588 1.59115 -0.576834 0.421384 0.699784
-1.50285 -5.46759 0.588374 -0.523552 0.41179 -0.74587
-0.0610515 -7.67584 0.711617 -0.0174772 -0.999838 0.0043559
-1.59042 -5.57807 1.69755 -0.445826 0.010157 0.895062
1.85437 -6.48418 2.22509 0.00590915 0.00734219 0.999956
3.32483 -5.76468 0.000677846 -0.051878 -0.0485085 -0.997475
3.24491 -6.12538 0.599606 0.386402 -0.650761 -0.653608
0.272761 -7.17268 2.23568 0.0056166 0.0174964 0.999831
-1.9681 -5.39459 1.48927 -0.684766 0.00599681 0.728738
-0.276326 -5.6042 2.23238 0.00938413 0.00185742 0.999954
-1.13671 -6.32173 1.50488 0.0256361 -0.999671 -0
0.723027 -5.28702 2.22919 0.00402496 0.0080985 0.999959
1.14286 -7.05845 0.104137 0.798573 -0.201018 0.567339
-0.662113 -6.36309 0.265144 -0.84444 -0.533029 0.0529337
1.24832 -6.72811 1.94037 -0.341711 -0.939765 -0.00867268
1.82699 -6.33933 2.22394 0.00440364 0.00925651 0.999947
1.73362 -5.84153 2.22345 0.00410763 0.000167119 0.999992
4.09879 -6.43144 1.87693 0.90476 -0.419788 0.0720285
-0.675626 -6.34916 0.765965 -0.70368 -0.710285 -0.0181768
-1.25665 -7.56715 1.86396 -0.427278 -0.23528 0.87297
-1.3044 -5.50953 1.83974 -0.4448 0.00919558 0.895583
4.13072 -6.42356 1.12572 0.666555 -0.745325 0.0139866
-1.90619 -6.33064 0.684827 -0.362022 -0.929901 -0.064992
2.44037 -5.21641 2.2179 0.00176882 0.00389803 0.999991
3.71263 -6.76001 1.23499 0.00455677 -0.999952 -0.00867208
0.703973 -7.56404 0.140783 0.410206 0.0452771 -0.910868
2.99532 -6.75336 2.09836 -0.00925062 -0.971015 0.238838
0.723293 -7.66981 0.778013 -0.0194575 -0.999765 -0.00951573
2.91176 -6.73396 0.745259 0.10061 -0.994511 -0.0287137
4.10147 -6.42603 1.87509 0.902332 -0.42433 0.075776
0.175445 -5.0379 2.22799 0.00140452 0.00504753 0.999986
-0.0267058 -5.64661 0.0754978 -0.996023 0.0854782 0.0251424
-1.03504 -7.39744 0.00747944 0.000875253 0.000443126 -1
3.30087 -5.97301 2.21386 5.72814e-05 0.00290887 0.999996
2.88115 -5.28186 2.21566 0.00561898 0.00432755 0.999975
3.45187 -5.19015 2.21194 0.0069538 0.00555865 0.99996
1.89044 -5.9034 0.00317604 -0.0114058 -0.00180944 -0.999933
0.98793 -7.60581 1.39201 0.833472 -0.552376 -0.0142981
0.0196039 -5.13721 0.0607527 -0.649695 -0.0165876 -0.760014
-0.32275 -5.53344 2.23262 -0.00304427 0.00042472 0.999995
-1.58677 -5.78166 0.0191982 -0.165048 0.0880477 -0.982348
0.167273 -6.37553 1.96796 0.912339 -0.292163 0.286841
-1.73776 -5.85745 1.62669 -0.446581 0.008331 0.894705
2.57355 -6.76169 1.53107 -0.00262119 -0.999996 0.00139269
-1.79241 -5.40289 1.59536 -0.444994 0.0106576 0.89547
1.01557 -7.39584 0.808745 0.999894 -0.0110666 -0.00945446
1.14446 -6.75176 1.26134 0.997406 0.0406943 0.0593665
-0.600614 -6.45799 2.04868 -0.489603 0.471344 0.733569
-0.660823 -7.31807 0.404579 0.0658006 -0.997522 0.0249025
-1.77823 -6.8167 1.60444 -0.672635 -0.0122817 0.739872
-1.25848 -6.51728 0.914892 -0.0107056 0.999943 0.00059052
-0.581146 -5.17536 2.19126 -0.378783 0.00400186 0.925477
3.8432 -5.6797 0.123522 0.990979 0.0234027 -0.131959
-1.04144 -5.08494 1.9662 -0.442957 0.00662013 0.896519
-1.20525 -6.51506 0.81508 -0.0342224 0.998888 0.0324164
1.80658 -5.88396 0.0042089 -0.0134303 -0.00233203 -0.999907
1.59717 -5.84788 2.2241 0.00714316 -0.000196345 0.999974
-1.78923 -7.66256 0.720978 -0.811731 -0.58317 0.031699
-0.761937 -5.69319 2.10907 -0.439432 0.00614058 0.898255
2.48207 -5.71969 0.00849522 0.0663518 -0.0809343 -0.994508
1.86517 -6.37314 2.22407 0.0056765 0.00886951 0.999945
-1.73277 -5.96426 0.00628397 0.0102596 0.0108754 -0.999888
4.09176 -6.45784 1.6315 0.843612 -0.536931 0.00479366
-1.12583 -6.48727 1.32703 -0.000655694 0.998229 0.0594925
1.09336 -6.69075 0.844383 0.480791 0.293404 -0.82629
2.65862 -6.42285 0.00532453 0.0159327 0.0192648 -0.999687
0.860735 -6.31449 1.13839 -0.0195021 -0.997582 0.0667039
2.9872 -6.76212 1.39847 -0.00680953 -0.999935 -0.00917519
0.612345 -7.29039 2.16259 0.435807 0.00437442 0.90003
0.389082 -7.48236 2.23682 0.132744 -0.0867112 0.98735
-0.0382612 -5.68366 2.23073 0.00177442 0.00512006 0.999985
0.834769 -7.56346 2.04017 0.444565 -0.247788 0.860792
2.5158 -5.88074 0.0433711 0.324876 -0.0117165 -0.945684
-0.817928 -6.30825 0.148511 -0.092292 -0.979286 -0.180225
2.9026 -6.74517 0.173236 0.125728 -0.990432 -0.0568987
-1.41012 -5.43306 1.78624 -0.448139 0.0103685 0.893904
-1.7464 -5.76513 1.62157 -0.445863 0.00780282 0.895067
0.937949 -7.56017 1.97718 0.604185 -0.241923 0.759232
0.763469 -6.32454 0.907766 0.00513861 -0.999986 -0.000948639
1.113 -6.59445 1.21513 0.810942 -0.542945 -0.218138
-0.898454 -6.94177 0.00457367 -0.00276846 -0.00664566 -0.999974
2.57669 -6.76058 0.959678 0.00338459 -0.999993 0.0016234
-0.842903 -6.98117 0.0048178 0.00154126 -0.007507 -0.999971
-0.145861 -7.66662 0.101736 0.0467387 -0.967147 -0.249885
-0.298414 -6.36121 2.08129 -0.00709723 -0.316693 0.948502
0.115193 -6.37667 2.04544 0.553217 -0.120735 0.824241
1.12964 -6.6687 1.01848 0.992291 0.121709 -0.0233679
-1.49586 -7.59788 1.73017 -0.434415 -0.325991 0.839651
-0.522063 -5.38596 0.565326 0.0553551 -0.109568 -0.992437
0.880233 -6.32218 0.759159 0.0445545 -0.998991 0.00572072
-1.38987 -7.57209 1.79506 -0.447844 -0.254806 0.857035
1.9177 -5.49935 2.22037 0.00998388 0.0029492 0.999946
0.956442 -6.55896 0.559654 0.623769 0.780015 -0.049882
0.67432 -5.20492 0.00449369 -0.00135509 -0.0064076 -0.999979
-1.55438 -5.40535 0.740124 -0.627894 0.737821 -0.247729
0.906265 -7.54027 2.00492 0.534027 -0.17758 0.826608
-1.75353 -5.64742 0.546487 0.0493433 0.954231 -0.294972
-1.79739 -5.25685 1.59131 -0.446582 0.0076843 0.89471
-0.332477 -7.65184 0.95586 -0.0711851 -0.92795 -0.365844
-0.670687 -6.44868 1.2127 -0.961137 0.275962 0.00778771
-0.0530484 -7.67607 0.68515 -0.0104156 -0.999942 0.0027681
1.06609 -6.9194 1.43498 0.985064 -0.136024 -0.10558
-1.06257 -7.63754 0.794179 -0.486618 -0.868232 -0.0968288
-0.785006 -7.49532 0.00940061 0.00206501 -0.023099 -0.999731
1.79434 -5.05336 0.00139019 -0.00406234 -0.00524248 -0.999978
-0.451464 -6.49908 2.11004 -0.0484001 0.638673 0.767955
0.578522 -6.92113 2.17734 0.41394 0 0.910304
3.50646 -6.74073 0.656765 -0.0323692 -0.997146 -0.0682057
-0.955148 -7.68468 0.397502 -0.0342934 -0.999403 -0.00430578
-1.88327 -6.34133 1.34125 -0.317846 -0.948139 -0.00246474
-0.344053 -7.36834 0.775158 0.248523 -0.381939 -0.890145
-1.07614 -6.39395 0.796251 0.797343 -0.184904 -0.574504
1.19311 -6.36229 2.18681 0.668593 0.259542 -0.696865
2.17684 -6.39212 0.0042266 -0.00588814 -0.00884911 -0.999944
0.951416 -6.67148 1.97841 0.565616 0.11343 0.816831
0.163944 -6.36893 0.109088 0.915095 -0.232648 -0.329357
4.06915 -6.49859 1.93748 0.95222 -0.303598 0.0332489
0.936113 -7.15269 0.203345 0.227964 -0.857719 -0.460816
2.93228 -6.73584 0.823573 0.0564841 -0.997181 -0.0494011
2.25098 -5.92684 0.00283157 0.017152 0.00965914 -0.999806
0.691836 -7.52321 0.151515 0.542288 0.296237 -0.786236
-0.0112545 -7.62879 0.0378038 0.061362 -0.729701 -0.681008
0.957995 -6.61763 1.96055 0.568445 0.296982 0.76725
2.33769 -6.76067 0.840121 -0.00401235 -0.999992 0.000923343
0.191333 -6.55004 2.17684 -0.0213736 0.75461 0.655825
-0.674059 -6.02599 2.15391 -0.435019 0.00606781 0.900401
0.162044 -7.1333 0.0262147 0.338851 -0.011525 -0.94077
0.980668 -6.30503 1.5406 -0.109916 -0.993774 0.0181904
-1.85187 -6.79763 1.14015 -0.999894 -0.0145151 0.000986162
0.296157 -6.62979 2.22499 -0.02099 0.192692 0.981035
2.03581 -6.32072 0.00442707 -0.00567171 -0.00598176 -0.999966
0.489376 -6.32528 0.686155 0.00966008 -0.999947 0.00358967
1.11435 -6.75384 0.559155 0.211419 -0.893983 -0.395091
-1.58794 -5.55977 0.637707 -0.783849 0.430399 -0.44759
-1.35966 -6.25412 1.788 -0.37845 -0.524785 0.76248
2.85674 -5.83017 0.419873 0.178442 -0.241839 -0.953767
1.01257 -7.53223 1.32933 0.98561 -0.169017 0.00258755
-0.649993 -5.66382 0.500258 0.0329681 0.884479 -0.465413
3.43243 -5.21713 2.21222 0.0073324 0.00502625 0.99996
3.98299 -6.68695 2.16094 0.623635 -0.525711 0.578539
1.57833 -5.72203 2.22406 0.00942958 0.00218039 0.999953
2.5009 -6.76065 1.99657 -0.00298255 -0.99989 0.0145525
2.92955 -5.95207 0.522366 0.575586 -0.472632 -0.667323
-1.85197 -6.79795 1.21148 -0.999865 -0.0161769 -0.0029724
-0.107413 -5.18333 2.22999 0.00984777 0.000215718 0.999951
1.14209 -6.58588 1.65087 0.99066 -0.133897 -0.0257901
0.17957 -6.38052 0.886124 0.996167 -0.0796313 -0.0362074
3.02545 -6.29072 0.632131 0.322207 -0.569641 -0.756103
0.0256699 -7.67645 0.635001 7.07309e-05 -1 0.000303565
-0.146449 -5.28063 2.23054 0.0115057 0.00224186 0.999931
-0.333942 -7.37488 0.780999 0.290016 -0.307111 -0.906407
-0.315891 -6.02673 0.0103563 0.00569318 0.000282471 -0.999984
0.874465 -6.32025 0.185586 0.00720229 -0.994337 -0.106029
1.41751 -5.19692 0.00387762 -0.00571161 -0.0104101 -0.99993
-1.84172 -7.41713 0.80068 -0.999865 -0.0163189 0.00194981
0.155405 -7.67484 1.16047 0.0127456 -0.999918 -0.000851419
0.393444 -7.67249 1.22727 -0.00161505 -0.999997 0.00183153
1.08475 -7.07027 0.173653 0.511879 -0.769597 0.381708
-0.952834 -6.3172 1.83049 -0.0339931 -0.998833 0.0343144
1.47238 -5.2615 0.00407563 -0.00899712 -0.00842806 -0.999924
3.69855 -6.4678 2.21519 0.00606167 0.00307332 0.999977
-0.574617 -7.58584 0.852622 -0.0909619 -0.73032 -0.677022
4.02289 -6.69815 0.918347 0.847842 -0.529708 0.0239297
-1.3257 -7.58408 1.8241 -0.434504 -0.30294 0.848195
1.8133 -6.36459 2.22423 0.00396943 0.00934384 0.999948
-1.20485 -7.65148 1.84656 -0.374894 -0.580723 0.722645
4.13632 -5.75024 1.23746 0.00400546 -0.997822 -0.0658434
4.12886 -6.42497 1.14013 0.673222 -0.73933 0.0127679
4.03115 -6.47081 0.356715 0.577068 -0.422025 -0.699205
0.836312 -6.0611 2.22915 0.00853661 -0.00440779 0.999954
2.2941 -5.7904 2.21822 0.00601977 0.000956914 0.999981
1.75576 -6.99326 0.0102258 0.00359426 0.0141239 -0.999894
1.14753 -6.49864 1.71273 0.97516 -0.212366 0.0629556
2.0691 -6.7568 1.84355 -0.00725706 -0.999973 0.00059443
1.12259 -6.71627 1.3003 0.979632 0.0618233 -0.191045
0.841898 -7.19065 2.04853 0.458815 0.00222222 0.888529
0.181589 -6.37752 0.925371 0.99541 -0.0799906 -0.0525333
-0.0913738 -7.65377 0.0688018 0.029099 -0.911633 -0.409974
-0.0847094 -7.67822 1.87806 0.0445771 -0.999003 -0.00227084
-1.65688 -5.93461 0.00732742 -0.00956525 0.0464181 -0.998876
-1.80739 -6.54066 0.620828 -0.808523 0.588453 0.00364195
3.16233 -6.76429 1.61199 -0.00469547 -0.999974 0.00542641
-1.72971 -5.63423 0.611384 -0.0618161 0.969224 -0.238293
2.18055 -6.49405 2.22381 0.00549242 0.00723098 0.999959
-1.0226 -6.32328 1.16632 -0.0182361 -0.999825 -0.00405953
4.08301 -6.07512 2.06477 0.84241 -0.0031101 0.538829
0.569278 -6.29941 1.73142 0.00668108 -0.999816 0.0179868
-1.02212 -7.68043 0.337931 -0.0492702 -0.998694 -0.0135509
0.915515 -6.09744 0.00745941 -0.000213303 -0.0227986 -0.99974
2.33864 -5.86567 0.00635224 0.0588796 -0.0123231 -0.998189
-0.943963 -6.91251 0.0045765 -0.00484271 -0.00598269 -0.99997
-1.48752 -5.7929 0.00673635 -0.0671941 0.018584 -0.997567
2.20025 -6.17712 0.00207932 -0.00322855 -0.0072374 -0.999969
2.93049 -5.92595 2.21354 0.00205555 0.00327487 0.999993
-1.54769 -5.81567 0.011214 -0.110106 0.0637284 -0.991875
1.03677 -6.77915 0.369685 0.989428 0.0323791 -0.141366
0.745474 -6.50557 0.946144 -0.01198 0.999862 -0.0115264
4.00345 -4.92964 0.308635 0.0714701 0.00204529 -0.997441
1.05396 -7.02294 0.282436 0.85596 -0.480092 0.191947
0.636294 -7.35448 0.179306 0.718301 -0.00606166 -0.695706
0.220304 -5.96627 0.0103596 -0.00646924 -0.00704394 -0.999954
1.55239 -6.30329 2.22496 0.0089041 0.00781749 0.99993
0.106181 -6.38125 2.0506 0.49577 -0.0922573 0.86354
4.10709 -6.45176 0.58433 0.644535 -0.764566 0.00359751
-1.59381 -5.55849 0.649552 -0.79813 0.425244 -0.426797
-1.78611 -7.63395 0.0954952 -0.674121 -0.535616 -0.508603
-1.90967 -6.33552 1.08209 -0.355626 -0.934281 0.0254694
2.7898 -4.80827 -0.00602036 -0.00910349 0.000727103 -0.999958
-1.5729 -7.59013 1.69565 -0.405083 -0.272673 0.872673
-1.84566 -7.20103 0.608487 -0.998327 0.00270728 -0.0577503
4.04976 -6.58387 0.602596 0.978308 -0.206983 -0.00842555
0.0918099 -7.18655 0.00973297 0.131153 0.00807503 -0.991329
2.1839 -5.44737 0.354072 0.262327 -0.0235278 -0.964692
0.748851 -7.25771 0.259565 0.508705 -0.331956 -0.79437
-1.82524 -6.3489 1.24188 -0.121905 -0.992539 -0.00230791
-0.0196511 -7.67647 1.50732 0.00962965 -0.999954 0.000179247
2.30357 -5.96693 2.21852 0.00608539 0.00325022 0.999976
-1.23564 -7.61603 0.899004 -0.0793509 -0.828508 -0.554327
-1.53467 -6.32368 1.01139 0.12226 -0.992498 -0.000836808
-1.85316 -6.80234 0.857251 -0.999763 -0.0214155 0.0039487
4.19118 -5.73774 0.845526 0.999422 0 0.0340034
3.97779 -6.71415 0.408248 0.648719 -0.726007 -0.228204
-1.06747 -7.63753 1.45743 -0.46768 -0.874887 -0.125888
4.08406 -6.47447 0.598906 0.765723 -0.642788 0.0221832
3.86334 -4.99933 0.243363 0.948067 -0.00966136 -0.317923
1.31941 -5.1068 2.22414 0.00581785 0.00533192 0.999969
-1.05098 -6.32057 1.41326 0.018153 -0.99959 0.0221423
-0.638158 -6.44934 2.00978 -0.700294 0.448868 0.555073
-0.224676 -7.67967 2.02458 0.0140696 -0.997287 0.0722572
0.635202 -5.09839 0.00416497 -0.00111232 -0.000275834 -0.999999
-1.81928 -7.00486 0.501509 -0.843008 -0.00103127 -0.5379
3.36213 -5.35054 2.21325 0.00809398 0.00194498 0.999965
3.19161 -4.90814 -0.00690284 0.00599576 0.00485742 -0.99997
2.15023 -6.38083 0.00427481 -0.00520559 -0.00800475 -0.999954
1.97369 -6.47743 2.22424 0.00759407 0.00903042 0.99993
2.44434 -6.58406 2.22088 0.00819755 -0.106304 0.9943
1.22359 -5.40171 2.22679 0.00607646 0.00360098 0.999975
4.19447 -4.78683 0.500456 0.375223 0.914677 -0.150243
4.025 -6.68038 2.07562 0.907954 -0.382882 0.170356
-1.4099 -7.58792 1.77906 -0.440038 -0.320792 0.838724
2.14027 -6.75059 0.698469 -0.120242 -0.992743 0.00179253
3.27284 -6.73901 0.711148 -0.0165348 -0.999102 -0.0390059
-1.70833 -6.23925 1.62693 -0.427325 -0.296659 0.854041
1.73843 -4.92491 0.000721238 -0.00457258 -0.00746547 -0.999962
3.17185 -5.39804 2.21443 0.00389296 -0.00125607 0.999992
2.1357 -5.5458 0.00416859 0.00526659 0.00294584 -0.999982
1.49774 -6.60406 0.00873711 0.00169624 -0.00355622 -0.999992
-1.41576 -5.9999 1.7885 -0.445729 0.00574527 0.895149
-1.07773 -5.69614 0.296918 -0.0137185 0.996035 -0.0879009
-1.06839 -7.67611 0.178926 -0.00455964 -0.997278 -0.0735909
-1.64542 -6.21003 1.66622 -0.421728 -0.22063 0.87947
0.093658 -7.67621 0.632258 0.00711087 -0.999974 0.00135009
0.182661 -5.52259 0.0085139 -0.0796718 -0.0154529 -0.996701
0.935372 -7.66309 0.342578 0.188205 -0.979522 -0.0715219
1.13583 -6.72928 1.4943 0.995161 0.0700411 -0.0689051
-0.0406442 -6.07197 0.0122781 0.00133765 0.0010085 -0.999999
3.86759 -5.09313 0.256387 0.924807 -0.0083154 -0.380346
2.81736 -5.49614 2.21568 0.0101561 -0.00662571 0.999926
1.13639 -6.36748 1.62513 0.811774 0.583822 -0.0132269
3.8667 -5.84579 0.254544 0.909086 -0.0193726 -0.416157
2.84482 -5.04882 2.21421 0.008323 0.00664546 0.999943
1.03342 -6.89375 1.01613 0.994642 0.0550357 -0.0875077
-1.02098 -5.3898 0.625103 -0.540449 0.577922 -0.611491
-1.75569 -6.56798 0.0754535 -0.281133 0.860176 -0.425513
-1.11106 -5.80239 0.00434005 -0.00397574 -0.000769553 -0.999992
3.00091 -6.73588 0.541005 -0.0306319 -0.998803 0.038131
1.16214 -6.74835 1.64396 0.981336 -0.0306499 -0.189844
-1.39799 -6.51404 1.5204 0.0172559 0.999531 -0.0252865
3.61001 -6.76476 1.60432 0.000471668 -0.999993 0.00380659
2.58153 -5.8472 0.363916 0.503879 -0.502302 -0.702709
0.181075 -6.35306 1.50605 0.978621 -0.205526 -0.00774272
2.18467 -5.44569 0.35424 0.26224 -0.0281069 -0.964593
4.05254 -6.58452 0.977776 0.981564 -0.190549 0.0149103
1.82978 -6.23661 2.22299 0.00468714 0.00837549 0.999954
-1.09879 -5.19361 1.93868 -0.442804 0.00650039 0.896595
0.959719 -6.55568 1.42844 0.435739 0.90005 0.00639931
-1.37747 -5.76055 1.80578 -0.444548 0.0084834 0.895715
-0.972974 -7.68289 0.304461 -0.0577569 -0.998316 -0.00537532
3.2564 -5.0717 -0.0069978 0.00153865 -0.00379019 -0.999992
-1.49145 -5.93946 1.75028 -0.447668 0.00593492 0.89418
2.78003 -6.22893 0.429653 0.716931 -0.112028 -0.688084
-0.36169 -7.62668 0.908331 -0.0379986 -0.849118 -0.526834
-0.214562 -5.82535 2.23273 0.00931919 0.00640051 0.999936
-1.82753 -6.58732 0.805023 -0.846102 0.532879 0.0123074
1.06449 -6.646 1.59371 0.500838 0.864623 0.0398667
0.564554 -5.01106 2.22723 -8.74029e-05 0.00509745 0.999987
1.04215 -6.94253 0.842687 0.96426 0.0925632 -0.248265
3.40457 -6.05997 0.651474 0.507755 -0.738453 -0.443702
2.03578 -5.96203 2.22076 0.011252 0.000966665 0.999936
-0.955679 -6.51404 1.04276 -0.0194224 0.998312 -0.0547393
0.53326 -5.4286 0.00659126 0.00186002 -0.0068836 -0.999975
2.52972 -6.76152 1.54524 -0.00482124 -0.999987 0.00148946
0.18406 -6.34155 1.5045 0.97947 -0.201353 -0.00975899
1.45794 -5.36199 0.00494839 -0.0103556 -0.0060499 -0.999928
0.515844 -6.29562 0.0943324 -0.0364178 -0.892613 -0.44935
-0.221809 -7.67814 2.04432 0.0105605 -0.996633 0.0813105
-1.1546 -6.32202 1.21529 -0.00618066 -0.999976 0.00299293
-0.707852 -7.67664 0.065343 -0.11119 -0.782251 -0.61296
0.183274 -7.18631 0.0350843 0.407713 -0.00760192 -0.913079
1.30848 -5.63144 0.00742825 -0.00369082 -0.00384607 -0.999986
-1.67381 -5.95789 1.65958 -0.445696 0.00839314 0.895145
-0.888353 -6.94258 0.00455303 -0.00218268 -0.0066065 -0.999976
-0.581092 -6.39515 2.03657 -0.511076 0.153266 0.845761
-1.56177 -5.66038 1.71278 -0.446446 0.00947368 0.894761
-0.60699 -5.25873 2.18056 -0.404081 0.00256904 0.914719
4.14049 -5.74746 1.19869 0.488204 -0.871181 0.0519597
-0.398013 -7.66755 2.13683 0.00864053 -0.961658 0.274117
-1.37378 -6.98551 0.446794 -0.37995 -0.0355348 -0.924324
0.178096 -6.35659 1.96319 0.823816 -0.511276 0.244795
-1.61642 -7.08963 1.69729 -0.447796 -0.00901967 0.89409
0.521177 -6.28556 2.16395 0.00446438 -0.756044 0.654506
1.60219 -5.81119 2.22405 0.00686613 0.00124989 0.999976
0.61837 -5.02773 2.22736 -0.000674219 0.00509499 0.999987
-1.10063 -7.61971 1.92262 -0.401858 -0.446045 0.799721
2.83594 -6.40784 2.21873 0.00469818 0.00869536 0.999951
0.138412 -6.3397 0.054024 0.680107 -0.309896 -0.664393
-0.544564 -5.67158 0.495027 0.0485745 0.840196 -0.540104
2.22191 -6.45828 0.00462027 -0.00676185 -0.0103557 -0.999924
0.341288 -5.9101 2.23221 0.00462496 0.00135452 0.999988
2.89671 -6.09034 0.542767 0.703303 -0.11657 -0.701267
-0.306143 -7.66464 2.13899 0.0188874 -0.964287 0.264185
-1.54217 -5.64495 0.501559 -0.128018 0.829664 -0.543387
0.408271 -7.67257 1.13505 -6.20636e-05 -0.999997 -0.00258185
2.28876 -5.77645 0.00409103 0.00264585 0.00451456 -0.999986
-1.80263 -6.55529 0.833416 -0.767659 0.640483 0.0219088
0.21312 -5.2351 0.0060845 -0.0283504 0.00398931 -0.99959
0.999127 -6.69612 1.32655 0.995389 -0.0943926 -0.0170671
3.06843 -5.50255 2.21432 0.00161112 -0.00537396 0.999984
-1.84821 -7.15933 0.699166 -0.999767 -0.020354 0.00717553
0.688198 -7.14638 2.12467 0.441219 0.0027535 0.897395
-1.25226 -7.66147 0.06868 0.0368013 -0.836157 -0.547254
4.16222 -6.20347 0.329618 0.459344 -0.0299433 -0.887753
-1.83803 -7.29132 1.47247 -0.987951 -0.0083537 0.154541
-0.186771 -6.21706 2.21791 0.00320004 -0.489659 0.871908
0.74702 -6.92655 2.09548 0.446449 0 0.894809
3.83922 -6.14724 0.127852 0.989471 -0.0196915 -0.143383
-0.0798592 -7.6756 0.701562 -0.0221454 -0.999723 0.00796387
3.2255 -5.36403 2.21421 0.00538064 0.000610423 0.999985
1.06075 -6.78783 0.572403 0.879919 -0.46212 0.110404
-1.85237 -6.7797 1.20681 -0.999938 -0.0107748 -0.00296666
-1.13163 -5.49064 1.92501 -0.442656 0.00833644 0.896653
2.09704 -5.05775 2.21746 0.00206478 0.00453858 0.999988
-1.55565 -6.51621 1.31335 -0.00466714 0.999911 0.0124671
-1.31423 -6.32397 0.563201 0.00745107 -0.999817 0.0176405
-1.79613 -6.5775 0.0932903 -0.440256 0.832556 -0.336193
-1.05428 -7.67716 0.191856 -0.0228057 -0.998124 -0.0568244
1.00688 -5.31379 0.00496547 -0.000245268 -0.00891175 -0.99996
-1.38241 -6.59124 1.78834 -0.405448 0.446912 0.797422
2.8798 -6.74183 0.48172 0.109663 -0.99326 0.0375255
-0.0417299 -5.18371 2.22941 0.00776035 0.000866876 0.99997
-1.00532 -6.87848 0.00482114 -0.00866529 -0.00582977 -0.999945
3.84844 -5.01698 0.171647 0.991283 -0.00115844 -0.131743
0.77179 -6.51416 1.5256 0.0107291 0.999749 -0.0196794
4.13735 -6.42754 0.51835 0.601713 -0.798154 -0.0298637
2.01618 -5.49224 0.00347384 0.0058588 -0.0047275 -0.999972
0.822029 -6.51645 1.43268 0.092232 0.995658 0.0125843
4.19079 -5.73727 0.856378 0.999281 0 0.0379065
1.77977 -6.75007 1.66404 -0.0350326 -0.997868 -0.0550678
1.44488 -5.2652 0.0043532 -0.00853158 -0.00901196 -0.999923
3.80081 -6.76012 1.03612 0.00931207 -0.999934 0.00673513
0.367578 -7.63945 0.142329 0.011349 -0.82152 -0.570067
2.96511 -6.24431 0.595376 0.223883 -0.249686 -0.94209
0.362624 -5.87506 0.00927069 -0.000821337 -0.00631332 -0.99998
-1.02218 -5.3898 0.62619 -0.54063 0.577763 -0.611481
1.1451 -6.74853 1.46835 0.997462 -0.0701463 0.0122203
3.3909 -6.07698 0.663914 0.513348 -0.72937 -0.452208
2.26648 -5.13958 2.21769 0.000325405 0.00479057 0.999988
-1.2147 -6.22823 1.87264 -0.419989 -0.335733 0.843145
2.64077 -5.22503 0.386255 0.0221624 -0.0332934 -0.9992
1.02073 -5.0663 2.22563 0.00664666 0.00938421 0.999934
0.826847 -6.60724 2.03797 0.442673 0.321822 0.836941
0.0376471 -6.45509 2.0866 0.0858009 0.427827 0.899779
-1.85174 -6.94303 0.697207 -0.999863 -0.0140941 0.00872938
0.819761 -5.13321 2.22755 0.00550658 0.00676362 0.999962
4.19191 -4.78 0.549732 0.306888 0.948933 -0.0731192
2.25906 -6.75922 1.07504 -0.0383742 -0.999263 -0.00133508
-0.770366 -5.46516 2.10289 -0.44117 0.0098706 0.897369
0.286575 -7.66268 0.198237 0.022316 -0.965704 -0.258686
-0.379172 -5.32334 2.23182 -0.0356922 0.00328531 0.999357
2.21147 -6.29937 0.00319638 -0.00780172 -0.00873307 -0.999931
0.595102 -6.30194 1.58992 -0.002059 -0.999747 0.0223928
-0.442628 -5.09163 2.22686 -0.117161 0.00235236 0.99311
2.29897 -5.89775 0.00431604 0.039082 0.00425448 -0.999227
0.125781 -6.37413 2.03766 0.639205 -0.269571 0.720241
-0.621229 -6.43844 2.02143 -0.643725 0.394657 0.655641
-1.93363 -6.289 0.509336 -0.737969 -0.673899 0.0355327
0.36849 -7.54599 2.23244 0.0666063 -0.324594 0.943505
-1.60418 -6.17798 0.0251397 -0.116841 -0.150545 -0.981674
1.73921 -5.61692 0.00407224 -0.00710244 -0.005616 -0.999959
-0.663669 -6.36507 0.20633 -0.854762 -0.518546 0.0221797
4.19158 -4.79976 0.438743 0.488519 0.829373 -0.27109
-1.60845 -5.78624 0.0223916 -0.157226 0.11035 -0.981378
0.4766 -6.2735 0.0608724 -0.0269129 -0.824191 -0.565672
-0.652236 -6.45424 1.99127 -0.74841 0.47589 0.461965
-1.81721 -7.00091 0.498237 -0.843435 0.00165254 -0.537229
-0.877486 -7.63545 2.0371 -0.446764 -0.285214 0.847971
-1.09292 -6.32216 1.33502 0.00106507 -0.999981 0.00606728
4.0343 -5.65852 2.13693 0.750019 -0.0267409 0.660876
-1.40175 -5.37254 0.621702 -0.393595 0.730914 -0.557537
-0.864094 -5.58766 2.0581 -0.441467 0.00773397 0.897244
2.32651 -6.40736 2.22137 0.00404628 0.012418 0.999915
-1.06522 -7.63463 1.42546 -0.492828 -0.865578 -0.0888552
-0.0259724 -5.64498 0.0826887 -0.960807 0.274502 0.0387098
1.09874 -6.58318 0.859778 0.729691 -0.67146 -0.129197
-1.81127 -6.26391 0.019924 0.0273122 -0.0333417 -0.999071
-0.670388 -5.92904 2.15512 -0.431818 0.00525139 0.901946
2.24788 -6.0368 2.21912 0.00614741 0.00346325 0.999975
3.87195 -5.2556 0.264447 0.874295 0.0292858 -0.48451
3.35872 -5.47532 -0.0118063 -0.000570732 0.0335902 -0.999436
3.372 -6.76088 1.16107 0.00165587 -0.999988 -0.00457116
1.02956 -6.94016 0.648834 0.999316 0.0348895 0.0122671
-1.47015 -5.35089 0.742508 -0.494377 0.819975 -0.2885
1.71578 -6.68585 2.20153 0.0184555 -0.554226 0.832162
2.18419 -5.78055 0.00336613 0.00879265 0.00323091 -0.999956
2.88555 -5.90588 0.452976 0.455853 -0.412475 -0.788709
4.18992 -5.79629 0.372953 0.815487 0.043052 -0.577172
-1.50694 -6.58944 1.72644 -0.392192 0.448854 0.802942
-1.77188 -5.96056 0.510315 -0.602323 0.296391 -0.741188
1.14304 -6.62297 0.995492 0.987078 0.12019 -0.105974
-1.85239 -6.79025 1.29245 -0.99985 -0.0172623 -0.00160474
1.01614 -7.40138 0.861991 0.999844 -0.0153163 -0.00879334
2.08053 -6.7517 2.06028 0.0066768 -0.990361 0.138347
1.13358 -6.5391 1.28948 0.968152 -0.246728 0.0425204
0.110432 -7.03652 0.00959114 0.232881 -0.0183219 -0.972333
-1.94695 -6.31339 0.701356 -0.482324 -0.872124 -0.0822461
3.87636 -5.12581 0.270969 0.807496 -0.0152185 -0.589677
1.93351 -6.5026 2.22486 0.00748797 0.00580924 0.999955
-1.2141 -7.56041 1.88687 -0.438947 -0.207935 0.874121
1.62637 -6.8068 0.0154137 0.00945752 0.000136846 -0.999955
2.536 -6.65228 2.21044 0.018332 -0.354201 0.93499
-0.596752 -7.64071 0.945557 -0.0575029 -0.961825 -0.267557
-1.13214 -6.3216 1.49113 0.0259156 -0.999661 0.00231213
-0.0287688 -7.67628 0.691716 -0.0083185 -0.999964 0.00175656
-1.65476 -5.69586 0.44134 -0.250234 0.831135 -0.496585
-0.73666 -5.49419 2.11977 -0.440459 0.00929777 0.897725
1.53024 -6.8522 0.0119502 0.0382016 0.0155588 -0.999149
1.13744 -6.36132 2.04077 0.866881 0.49297 -0.0741494
-1.56894 -5.56859 1.70816 -0.447431 0.0103752 0.894258
0.198604 -7.31649 0.0446628 0.45233 -0.00724821 -0.891821
0.181551 -6.37811 0.501343 0.981158 -0.192222 0.019505
-1.20003 -7.59012 1.17636 -0.261634 -0.909815 0.322157
3.95915 -6.74573 0.724039 0.449833 -0.893082 -0.00732857
-0.0529231 -5.18939 0.490423 -0.813485 -0.0196059 -0.581255
1.46343 -5.30282 0.00449702 -0.00991131 -0.00744706 -0.999923
3.01502 -6.31162 0.643054 0.361987 -0.553647 -0.749961
1.05035 -6.63221 0.797291 0.935658 0.314971 -0.159175
-0.690336 -7.67681 0.0626685 -0.103106 -0.762878 -0.638268
0.1795 -6.86411 0.0307725 0.471857 -0 -0.881675
-1.69009 -6.3637 0.491186 0.0273771 -0.852852 -0.521435
2.16404 -6.46874 0.00498097 -0.00397879 -0.00843194 -0.999957
1.50327 -5.20969 2.22348 0.00941654 0.0106696 0.999899
0.997248 -7.58964 1.43372 0.893409 -0.448984 -0.0153176
0.859005 -7.19796 2.03973 0.467733 0.00255169 0.883866
1.12427 -6.74816 1.48232 0.995161 0.0974586 0.0124812
2.10497 -6.75162 1.43045 -0.0539818 -0.997909 -0.0355373
0.0472238 -7.67624 0.709787 0.0040869 -0.999985 0.00366773
-1.80309 -6.55046 0.754732 -0.765605 0.642952 0.0214868
1.0353 -6.83014 0.681716 0.995134 -0.0972598 0.0157529
-1.64815 -6.34095 1.02502 0.125156 -0.99213 0.00364722
-0.489077 -5.84086 2.22257 -0.195926 0.00395375 0.980611
3.29446 -6.13666 0.649556 0.490057 -0.693135 -0.528591
1.62825 -6.75219 0.441478 -0.667313 -0.743671 0.0405878
-1.96312 -5.64762 0.736197 -0.596882 0.686098 -0.415936
-1.78758 -7.48435 1.58394 -0.726885 -0.0536092 0.684664
-1.9198 -6.30295 1.46517 -0.545737 -0.67795 0.492498
1.28216 -6.3846 2.22392 -0.242043 -0.0431218 0.969307
-0.12383 -7.6596 0.0811088 0.0435212 -0.942712 -0.330755
1.14816 -6.39301 1.40367 0.965503 0.258349 0.0325552
-1.48031 -7.6465 0.0544208 -0.0145933 -0.718927 -0.694933
-1.04489 -6.28747 1.91081 -0.282521 -0.7338 0.617834
2.18472 -5.46208 0.354459 0.269503 0.00320518 -0.962994
-0.664351 -6.36215 0.235767 -0.826355 -0.561398 0.0443743
-1.28986 -7.18731 0.00619394 -0.000274478 -0.00381637 -0.999993
4.02938 -6.68753 1.36962 0.924812 -0.380385 -0.00543127
0.997626 -6.57294 1.81732 0.525237 0.850817 -0.0153728
0.192429 -5.8317 2.23223 -0.00191221 0.00427224 0.999989
3.63619 -6.76484 1.58658 -0.00114224 -0.999996 0.00251207
0.741185 -6.63106 0.113632 -0.0130557 0.214639 -0.976606
4.05625 -5.68826 2.10823 0.781136 -0.0463875 0.622635
0.922944 -6.9777 2.00002 0.596092 0.00620588 0.802892
-1.48149 -5.58542 0.543949 -0.264782 0.406232 -0.874566
4.1193 -6.41962 1.7143 0.806933 -0.589644 0.0343406
-1.09962 -5.88846 0.00475162 0.00358499 -0.00491451 -0.999981
-1.0088 -5.01006 1.98175 -0.443896 0.00690247 0.896052
0.158021 -7.67638 0.368943 0.0042904 -0.999991 2.42726e-05
0.1814 -6.37934 0.694741 0.993798 -0.106472 0.0320851
-1.3583 -7.12721 0.00599971 -0.00158833 -0.00453369 -0.999988
-1.3044 -7.10616 0.00588938 0.00175344 -0.00175358 -0.999997
2.31807 -6.76044 1.28059 -0.0143522 -0.999895 0.00221636
-0.033542 -6.14476 0.0118953 0.00492204 0.0050153 -0.999975
-1.06789 -6.32213 1.13857 -0.0140313 -0.999637 0.0229858
-1.59714 -6.5916 1.68234 -0.403258 0.443009 0.800704
-1.6941 -6.59531 1.63412 -0.44273 0.429959 0.786846
1.01569 -5.06974 0.00386022 -0.00115499 0.00244936 -0.999996
-0.686768 -6.47948 1.09567 -0.895299 0.444587 0.0279632
-1.43484 -7.69076 0.20644 -0.00602863 -0.998834 -0.0478999
-0.657489 -6.36522 0.329636 -0.88803 -0.458165 0.0385781
2.33022 -5.91425 0.00580907 0.0665638 0.00495231 -0.99777
0.738387 -5.06387 0.0041055 -0.000677178 0.00160395 -0.999998
-1.32005 -6.51746 1.26735 -0.0615127 0.99799 0.0152239
0.190737 -6.36834 0.29531 0.862993 -0.504293 -0.0305292
1.04817 -7.03582 0.320224 0.96744 -0.212065 0.138159
3.61696 -5.48945 -0.0128777 0.0170863 -0.01706 -0.999708
-1.79245 -5.98487 0.516179 -0.586729 0.341651 -0.734182
-1.06756 -7.63756 1.45797 -0.442111 -0.889306 -0.11693
2.4341 -6.76065 1.66473 -0.00970402 -0.999952 0.00140141
0.691432 -5.72873 0.00804832 0.000530134 -0.00311454 -0.999995
0.672441 -5.04737 0.00418571 -0.000784894 0.002015 -0.999998
-0.932649 -6.9187 0.00455682 -0.00447325 -0.00594633 -0.999972
-1.85278 -6.78597 0.979419 -0.999934 -0.00951681 0.00649563
3.64084 -5.32696 2.21147 0.0021541 0.00369678 0.999991
1.59654 -5.54921 2.22388 0.00991798 -0.00229838 0.999948
0.342049 -6.95287 2.23342 0.0451488 0.010557 0.998924
0.84018 -7.54849 2.04115 0.459445 -0.201972 0.864938
0.357046 -6.21772 0.0251995 0.0229543 -0.410685 -0.911488
-0.659693 -6.3713 0.140595 -0.939514 -0.334571 -0.0733154
2.93115 -6.45857 0.69292 0.729114 -0.389079 -0.563037
-1.06851 -7.63821 1.4651 -0.455397 -0.878796 -0.142587
0.273175 -6.68136 0.084503 0.358129 0.0732581 -0.930794
2.85151 -5.97769 0.458917 0.700499 -0.255313 -0.666421
3.83632 -5.44827 2.21146 0.0357818 0.00437576 0.99935
1.65712 -6.68931 0.0103617 -0.00618043 -0.0267587 -0.999623
-1.06761 -7.63754 1.45797 -0.438067 -0.890628 -0.12198
2.02386 -6.27716 0.00423328 -0.00681755 -0.00657008 -0.999955
2.50906 -5.52717 0.00356153 -0.0137983 -0.00139166 -0.999904
1.00206 -6.96668 1.9046 0.910188 0.0192087 0.41375
3.26157 -6.71648 2.17757 -0.00124893 -0.788732 0.614735
1.14221 -6.71728 1.32687 0.999062 0.00655575 -0.0428147
0.391236 -5.71298 0.00791474 -0.00112344 -0.00876139 -0.999961
4.12123 -6.42899 1.4038 0.752642 -0.658101 0.0208015
-1.21997 -7.56238 0.773398 -0.227939 -0.950157 -0.212709
-0.661124 -6.36313 0.281275 -0.851003 -0.52275 0.0502716
-1.8518 -6.65535 0.761765 -0.974535 0.223961 0.0110623
-1.67337 -6.03377 1.66047 -0.444578 0.00880627 0.895697
2.53918 -5.87419 0.34904 0.592628 -0.493268 -0.636773
0.183841 -7.13276 0.0351628 0.40899 -0.00808712 -0.912503
0.681536 -5.08383 0.00412532 -0.000780517 0.000715327 -0.999999
3.22708 -5.329 2.21416 0.0057605 0.00167709 0.999982
3.86753 -5.6939 0.259795 0.850335 0.0287802 -0.525455
-1.55469 -6.21206 1.70985 -0.426526 -0.24316 0.871177
-0.250279 -5.14422 2.23159 0.0100653 0.00109767 0.999949
0.332855 -7.34435 0.0951035 0.218705 0.0107422 -0.975732
4.14442 -5.75076 1.5847 0.647174 -0.760193 0.0572074
-1.41483 -7.61053 1.76709 -0.421344 -0.402075 0.8129
-1.11401 -5.07432 1.93027 -0.443616 0.00690048 0.896191
-0.0196847 -6.24684 2.20095 -0.0220227 -0.600781 0.79911
1.71643 -6.35924 2.2245 0.00320459 0.00930543 0.999952
1.18704 -6.46423 2.15451 0.89368 0.0448355 -0.446459
-1.31529 -6.7373 1.85062 -0.439181 0.00912473 0.898352
1.6264 -6.57997 0.00845844 -0.0048659 -0.00406663 -0.99998
-0.354219 -5.94856 2.23428 -0.0238004 0.00975034 0.999669
-1.62497 -5.82391 0.0191546 -0.0992509 0.149772 -0.983726
-1.43451 -6.92891 0.462718 -0.203068 -0.029764 -0.978712
0.0121726 -5.29521 0.0754459 -0.797527 -0.0276851 -0.602647
-0.873462 -7.68601 0.605672 -0.0937166 -0.995359 0.0218768
2.52956 -5.89207 0.353687 0.587551 -0.441728 -0.677982
-0.134071 -7.66996 0.825202 -0.187481 -0.982177 -0.0134116
-1.52777 -6.51454 1.26928 0.0038279 0.999788 0.0202112
0.56337 -6.30441 1.38326 -0.00506368 -0.999929 -0.0107761
-0.615418 -7.64394 0.959235 0.012954 -0.967944 -0.250832
0.849852 -5.50284 2.22933 0.0068778 7.85217e-05 0.999976
-0.963471 -6.31557 1.65178 0.022393 -0.999748 0.00151523
2.01979 -6.75641 1.91311 -0.00564267 -0.999983 0.00122408
1.62941 -6.74629 1.34952 0.00121331 -0.998876 0.047379
-0.671402 -6.36111 0.879003 -0.919975 -0.390613 -0.0326826
0.96298 -5.13526 0.00392061 -0.00132421 -0.00204055 -0.999997
-1.08433 -5.83611 0.00452113 0.00406066 -0.00645487 -0.999971
-1.15644 -6.52304 1.65728 0.108518 0.993928 0.0181763
-0.671557 -5.64597 0.525601 0.0178179 0.804614 -0.593531
1.54937 -5.24153 0.00319864 -0.0095179 -0.00729203 -0.999928
0.271748 -7.03024 0.0802588 0.385023 0.0047828 -0.922894
2.09495 -6.56874 2.22289 0.00321145 -0.0761691 0.99709
-1.93032 -6.28891 1.47167 -0.526602 -0.662243 0.533033
0.644971 -7.67471 0.462095 0.00704145 -0.999943 0.00799789
4.16985 -5.78933 0.350435 0.698892 0.0466503 -0.713705
-1.92593 -5.63332 0.713349 -0.404685 0.830557 -0.38263
0.268458 -5.77083 2.23189 0.00139968 0.00651106 0.999978
-1.81609 -6.56789 0.550944 -0.837007 0.547177 0.00416043
-1.91596 -5.46572 1.53018 -0.532302 0.0047606 0.846541
3.80027 -6.76017 1.25055 0.00632499 -0.999919 -0.011068
2.43831 -6.09739 0.00529966 0.0360105 0.0445941 -0.998356
-1.24067 -6.32289 0.498342 0.0356681 -0.999346 0.00602866
-0.764098 -7.67691 0.0778316 -0.100752 -0.909856 -0.402506
2.63594 -5.76077 0.0311994 0.0754643 -0.378895 -0.922358
1.16323 -6.44746 2.05388 0.98594 0.111993 -0.124018
1.98761 -5.53502 0.00350559 0.0043521 -0.00314197 -0.999986
-0.900968 -5.64749 2.04043 -0.442263 0.00722358 0.896856
0.18002 -6.3779 0.891518 0.996035 -0.0797365 -0.0394434
2.6131 -5.9719 2.21641 0.0101332 0.00538526 0.999934
-0.851496 -6.23644 2.04617 -0.392586 -0.460771 0.795968
0.387669 -5.50137 0.00651962 0.00195895 -0.00396308 -0.99999
-1.78584 -6.60416 1.56976 -0.688198 0.400952 0.604666
-1.14172 -6.25581 0.0266419 -0.0111699 -0.428567 -0.903441
-1.22645 -6.49484 1.48543 -0.0718247 0.997014 0.0283635
-0.854043 -6.54477 2.0288 -0.2836 0.436345 0.853917
1.13617 -5.71732 0.00776653 0.00103454 -0.00184421 -0.999998
3.67264 -6.76022 1.01147 0.0046355 -0.99998 0.00435765
1.41541 -6.85916 0.00777607 0.0239192 0.000136591 -0.999714
0.0549069 -7.67636 0.46987 -0.00190575 -0.999998 0.000569011
1.72105 -5.02818 0.00148193 -0.0022578 -0.00495581 -0.999985
2.54999 -5.85586 0.0567561 0.415836 -0.318773 -0.851742
-0.00558803 -7.67627 1.66934 0.00792574 -0.999968 0.00103291
-1.37853 -5.57116 1.80345 -0.445923 0.0084663 0.895031
0.556856 -6.56762 2.1544 0.418474 0.398363 0.816203
-0.0677174 -7.67682 1.66202 0.0100607 -0.999949 0.000900329
-1.36782 -6.9711 0.443809 -0.386043 -0.0296063 -0.922006
-0.35036 -5.05333 2.23151 -0.0183983 0.00202898 0.999829
1.46683 -4.96748 0.00191812 -0.00402907 -0.00404869 -0.999984
-0.0120132 -7.1919 0.00441009 0.00382463 0.00367265 -0.999986
1.16245 -6.78235 0.673925 0.57245 -0.819857 0.0116375
2.8819 -6.1022 0.528734 0.759245 -0.133649 -0.636935
-0.179545 -5.95187 0.0114783 0.00537874 -0.00116747 -0.999985
-1.49075 -6.04777 1.75141 -0.445884 0.00850286 0.89505
0.180603 -6.36213 1.92531 0.906549 -0.384725 0.173656
2.36885 -5.13586 2.21762 0.00105158 0.00523638 0.999986
0.569796 -6.04565 2.23075 0.00655088 0.000604999 0.999978
1.19428 -6.57635 2.16555 0.82962 0.0680433 -0.554167
-1.55622 -7.18132 1.72581 -0.441451 -0.0145644 0.897167
1.31141 -6.74109 1.88494 -0.140019 -0.99 -0.0171773
-2.02312 -5.91258 1.21346 -0.999407 0.0246349 -0.0240591
0.642002 -7.37198 0.184384 0.742943 0.078501 -0.664735
4.11251 -5.05391 2.07099 0.565609 0 0.824673
-1.81237 -7.62578 1.14363 -0.909968 -0.414648 -0.00502144
-0.00417021 -5.43097 0.110389 -0.918949 0.014165 -0.394122
3.45123 -6.74078 0.68056 -0.0241044 -0.997519 -0.0661461
1.96009 -5.47701 0.00308065 0.00342251 -0.00601116 -0.999976
-1.4734 -6.29811 0.0663549 -0.0297687 -0.756733 -0.653046
-0.661636 -6.36533 0.246594 -0.850547 -0.523721 0.0478179
-1.59263 -5.79075 0.0193635 -0.159045 0.0977526 -0.98242
